# .PCD v0.7 - Point Cloud Data file format
VERSION 0.7
FIELDS x y z
SIZE 4 4 4
TYPE F F F
COUNT 1 1 1
WIDTH 279
HEIGHT 1
VIEWPOINT 0 0 0 1 0 0 0
POINTS 279
DATA ascii
-0.0081631774 -0.48166585 -0.1236668
0.0016832043 -0.48177218 -0.12443674
-0.0081052408 -0.47333169 -0.1223373
0.00245994 -0.47412655 -0.12275179
-0.0075918771 -0.15003102 -0.1228237
0.0027804275 -0.14918472 -0.12317293
-0.01139507 -0.46811888 -0.11289891
0.0023978846 -0.4649483 -0.11736249
-0.0099984007 -0.45025438 -0.11160142
0.0024020087 -0.4491083 -0.11370115
-0.0089098606 -0.43016797 -0.10613766
0.0022847364 -0.42975134 -0.10666476
-0.0075440416 -0.41617113 -0.10159323
0.0023551257 -0.41618425 -0.10174841
-0.007504466 -0.18347105 -0.10199765
0.0026441298 -0.18293674 -0.10245743
-0.008459365 -0.1697284 -0.10959919
0.0027096276 -0.16926773 -0.11080611
-0.010695498 -0.15555483 -0.11380562
0.0027311314 -0.15682487 -0.11856022
-0.012961385 -0.46621361 -0.090498008
0.00089688879 -0.47016943 -0.090466999
-0.015047535 -0.44908294 -0.090094939
-0.014987386 -0.4300952 -0.089651972
-0.011108851 -0.40816844 -0.093917668
0.0027771718 -0.40559062 -0.097848669
-0.0095242523 -0.39000228 -0.090317525
0.0023514307 -0.38876265 -0.091715291
-0.0087719942 -0.37052363 -0.084633268
0.0023856312 -0.36970446 -0.084868319
-0.0071018166 -0.35910258 -0.081001252
0.0030913537 -0.35855991 -0.08064577
-0.0078407461 -0.20885545 -0.085948728
0.0027189995 -0.20885307 -0.086218253
-0.009811745 -0.19162326 -0.093802333
0.0025415902 -0.19323741 -0.09585131
-0.01467353 -0.1695631 -0.089722998
-0.014635422 -0.15427531 -0.090415351
-0.010254095 -0.46261057 -0.072499707
0.00067886588 -0.46356481 -0.072905123
-0.015009469 -0.44959113 -0.069981232
-0.014971438 -0.42952541 -0.069934584
-0.014939566 -0.40956542 -0.070427768
-0.014922315 -0.38948962 -0.069440119
-0.014897416 -0.37012839 -0.069810838
-0.010545895 -0.34943905 -0.074161187
0.0020839295 -0.34960255 -0.077604368
-0.0092618354 -0.33078253 -0.069249518
0.0025124492 -0.33201346 -0.071123697
-0.0080896672 -0.31179786 -0.063459039
0.0024036434 -0.31098017 -0.063546017
-0.007916485 -0.24505359 -0.06340722
0.0025214353 -0.24492767 -0.063896738
-0.0087418463 -0.22992492 -0.071922019
0.0025650968 -0.22970472 -0.073312126
-0.013304114 -0.21368347 -0.072876409
0.0026380611 -0.21896103 -0.079787403
-0.014714262 -0.19195427 -0.069987841
-0.014624487 -0.17077066 -0.070355259
-0.014548053 -0.15325303 -0.069584839
-0.0092429277 -0.13009299 -0.070100918
-0.013215513 -0.44930816 -0.051558495
0.00048825974 -0.45654258 -0.054265246
-0.014960012 -0.4295955 -0.050230298
-0.014929656 -0.41031608 -0.050221615
-0.014901348 -0.39024058 -0.049532488
-0.014903144 -0.37022865 -0.049642548
-0.014841257 -0.35023484 -0.050392736
-0.014836103 -0.33004838 -0.050266191
-0.01479701 -0.30964306 -0.050385132
-0.0094730034 -0.29024622 -0.053614225
0.0023615514 -0.28984571 -0.055934317
-0.0089308368 -0.26848152 -0.049947515
0.0025583636 -0.26774439 -0.051240522
-0.010389023 -0.25339299 -0.054154392
0.0025178832 -0.25528416 -0.057385646
-0.014700625 -0.22947603 -0.049896695
-0.014686447 -0.20881455 -0.050052311
-0.014611516 -0.18792628 -0.049261708
-0.01454424 -0.16969573 -0.050371487
-0.014558018 -0.15443785 -0.050474171
-0.01172841 -0.13711579 -0.049232006
-0.0032921648 -0.10944428 -0.043746978
0.0074016396 0.35381857 -0.046174567
0.0054642428 0.36978295 -0.044084322
-0.012022285 -0.44676921 -0.033403818
0.00029522082 -0.44910625 -0.034533098
-0.014937092 -0.43094891 -0.030367052
-0.014897405 -0.41032925 -0.029986741
-0.014902989 -0.38978815 -0.029749876
-0.014849596 -0.36976495 -0.029971825
-0.014836248 -0.35001141 -0.030083271
-0.014815927 -0.32984269 -0.029843401
-0.014752815 -0.30959249 -0.030176643
-0.014797598 -0.28974253 -0.030252492
-0.014749166 -0.26956567 -0.029796969
-0.014717745 -0.24939106 -0.03049632
-0.01464697 -0.22988905 -0.029619267
-0.01466619 -0.21173124 -0.030566864
-0.014541748 -0.1917033 -0.029094357
-0.014560501 -0.1697395 -0.030077588
-0.014371043 -0.15184632 -0.031590175
-0.010146198 -0.12956846 -0.029446909
-0.0042813336 -0.10823619 -0.024473323
-0.0029830537 -0.090005919 -0.021210646
0.0026031763 -0.084497035 -0.025416743
-0.0021813805 -0.072251186 -0.021949064
0.0045241127 -0.066423878 -0.023324797
-0.0022321355 -0.051611371 -0.021633124
0.0050993585 -0.048275422 -0.023304017
-0.0022334312 -0.028242465 -0.021597553
0.0054315035 -0.028961869 -0.023430502
-0.0032583408 -0.0098807616 -0.021475671
0.0051350524 -0.011161231 -0.02336497
-0.0020926553 0.0082689757 -0.021777635
0.0054616779 0.0082707154 -0.023413114
-0.0026107668 0.03049314 -0.021465987
0.0057924408 0.030428549 -0.023485444
-0.0028215102 0.048152611 -0.021832444
0.0044299201 0.050074104 -0.023442246
-0.0024711622 0.068429492 -0.021885483
0.0053964499 0.070337646 -0.023454983
-0.0030466223 0.091696054 -0.021572143
0.0053928844 0.091503739 -0.023523483
-0.0022588866 0.10953033 -0.021991799
0.004779967 0.11067794 -0.023616282
-0.0029359669 0.13165689 -0.0214669
0.0057152584 0.12902825 -0.023548985
-0.0022102224 0.14769793 -0.022185421
0.0051329774 0.14940087 -0.023527363
-0.0028463344 0.17127785 -0.021482429
0.0054640551 0.16768387 -0.023541184
-0.0026210132 0.18830356 -0.021842042
0.0047559082 0.18970954 -0.023636121
-0.0032939219 0.21164306 -0.021449426
0.0050627291 0.20890382 -0.023722017
-0.0024206205 0.22825623 -0.02173158
0.0050982716 0.23273979 -0.023625895
-0.0027645377 0.24988696 -0.021686025
0.0054199831 0.24953362 -0.023747399
-0.0024868883 0.26891103 -0.021956887
0.0053173313 0.27033636 -0.023806695
-0.0022479845 0.28983077 -0.022066798
0.004992974 0.28794926 -0.023753658
-0.0029866886 0.30888656 -0.021555744
0.0049047126 0.30988869 -0.023750899
0.0066288388 0.33275205 -0.024365224
0.0068628769 0.348712 -0.03362368
0.00074815919 0.37449765 -0.024093738
0.003307414 0.39224362 -0.033520818
0.0033430383 0.41347378 -0.029040605
0.004288428 0.42819875 -0.024909025
0.0097099729 0.4436633 -0.022379529
-0.0094944593 -0.44122425 -0.014526715
6.9899441e-05 -0.44125929 -0.013694421
-0.014899549 -0.42979297 -0.010807092
-0.014910657 -0.41025853 -0.010608321
-0.014844335 -0.39063758 -0.0094791949
-0.014825954 -0.3710534 -0.010130933
-0.014814163 -0.35068357 -0.0099377707
-0.014785494 -0.33043766 -0.009843085
-0.014773824 -0.3103728 -0.0099333292
-0.014742224 -0.2919122 -0.010609105
-0.01473566 -0.27158731 -0.0098840576
-0.014658487 -0.25099272 -0.0094983121
-0.014664262 -0.23006149 -0.009719993
-0.014555561 -0.20779215 -0.010443661
-0.014576324 -0.18835966 -0.0089458926
-0.014591319 -0.1724302 -0.0098767206
-0.014481059 -0.15098733 -0.010554097
-0.012732265 -0.12837781 -0.0099070212
-0.010438811 -0.10968286 -0.013035545
-0.010813865 -0.090114377 -0.012310625
-0.0098355394 -0.070912234 -0.014166143
-0.010533474 -0.050273985 -0.012568836
-0.010454586 -0.029285129 -0.012533525
-0.010166615 -0.010211223 -0.013451129
-0.010366687 0.011102099 -0.012492919
-0.010425217 0.029269874 -0.013322391
-0.010086947 0.049475979 -0.012927589
-0.010126882 0.06874229 -0.013734329
-0.010485865 0.089187264 -0.012316748
-0.0098383948 0.11044227 -0.014251691
-0.010621429 0.1306309 -0.012120634
-0.0097910417 0.1501729 -0.013901209
-0.010711147 0.16948667 -0.011667808
-0.010337017 0.18907128 -0.013199461
-0.010133828 0.20971249 -0.013383432
-0.01058686 0.22914466 -0.012109895
-0.0094895242 0.24791564 -0.014727422
-0.01076126 0.26910761 -0.011839951
-0.0095207747 0.28862306 -0.014413557
-0.0099509172 0.3084366 -0.014403022
-0.0064268317 0.32698604 -0.016013378
0.00068919506 0.35519758 -0.015172969
0.00065836997 0.37104338 -0.010836975
0.00071128883 0.39004478 -0.0074602091
0.0008142516 0.40781033 -0.015259185
0.00082160125 0.43474323 -0.0026251208
0.00079420896 0.4500019 -0.0098131513
0.0034703729 0.46489263 -0.015129559
-0.012256859 -0.42864457 0.0084331241
-0.014860219 -0.409758 0.0096363835
-0.014844277 -0.38984388 0.0098978337
-0.014800173 -0.3702217 0.0098313391
-0.014793138 -0.35084641 0.010267346
-0.014749587 -0.33088824 0.010251523
-0.014716754 -0.31047824 0.01075505
-0.014723091 -0.2891157 0.0096861348
-0.014711077 -0.26863787 0.009442878
-0.014669491 -0.24856739 0.010174567
-0.014551704 -0.23138681 0.0092768241
-0.01452501 -0.21097045 0.010195044
-0.014576528 -0.18984255 0.0109911
-0.01457635 -0.16853298 0.0093692858
-0.01453116 -0.15514311 0.011070592
0.00034912722 0.36874986 0.00061301113
0.00099340337 0.42295086 0.0037450362
0.00086100376 0.45254931 0.015412309
0.00083317509 0.46817684 0.0081871711
-0.010596959 -0.42334777 0.029875638
-0.014833533 -0.40923414 0.030075049
-0.01480051 -0.38920969 0.030091818
-0.014791701 -0.36927769 0.029760802
-0.014778647 -0.34898561 0.03119966
-0.014747975 -0.32915062 0.029922733
-0.014692926 -0.30965337 0.029999996
-0.014704608 -0.29046932 0.0299033
-0.014654261 -0.27142635 0.029425243
-0.014613509 -0.25029048 0.029261632
-0.014576464 -0.22833592 0.029061457
-0.014582051 -0.20844522 0.029405965
-0.014597406 -0.19102582 0.031460255
-0.014534453 -0.16918306 0.029368958
-0.014499295 -0.15028228 0.029849915
-0.012539537 -0.41081333 0.051535379
-0.014787246 -0.3905561 0.049898773
-0.01478727 -0.37103885 0.049516913
-0.01472115 -0.35131198 0.050678048
-0.014725235 -0.33158639 0.049527679
-0.014731781 -0.31073287 0.050231405
-0.014653043 -0.28918311 0.050154891
-0.014612964 -0.26880813 0.050292134
-0.014647338 -0.25226665 0.048517466
-0.014566201 -0.231874 0.050390113
-0.014574175 -0.20950058 0.049243219
-0.014555782 -0.18976168 0.047910295
-0.014512639 -0.17210943 0.050985288
-0.014492002 -0.14979932 0.049395029
-0.01450861 -0.13705635 0.05246849
-0.014783454 -0.40647343 0.06661842
-0.014766327 -0.39144459 0.070414908
-0.014751007 -0.37023431 0.069536261
-0.014697639 -0.34955686 0.069955572
-0.014695302 -0.33055273 0.066763617
-0.01471355 -0.3010118 0.063755907
-0.014608658 -0.29022381 0.065291673
-0.014712075 -0.27176169 0.06580735
-0.01454367 -0.2493715 0.067783974
-0.014559831 -0.23023711 0.069414131
-0.014557029 -0.21170981 0.070408165
-0.014516976 -0.1890088 0.069143765
-0.014505559 -0.17042978 0.069749668
-0.014459585 -0.15123436 0.071698017
-0.014474121 -0.13444012 0.068041116
-0.010246802 -0.40361226 0.083583653
-0.014771733 -0.38847393 0.090590544
-0.014738151 -0.36966828 0.089463629
-0.014747423 -0.3562094 0.089674242
-0.014470784 -0.22204822 0.080884717
-0.014479079 -0.20140187 0.085904598
-0.014547479 -0.19600748 0.082774818
-0.014475614 -0.16973415 0.086030401
-0.01445472 -0.14834751 0.092268199
-0.014457315 -0.13082001 0.088485494
-0.014378964 -0.11967831 0.09591838
-0.01443527 -0.38938755 0.10952248
-0.014698987 -0.37269479 0.10340856
-0.014386752 -0.12896292 0.10046945
