# .PCD v0.7 - Point Cloud Data file format
VERSION 0.7
FIELDS x y z
SIZE 4 4 4
TYPE F F F
COUNT 1 1 1
WIDTH 1013
HEIGHT 1
VIEWPOINT 0 0 0 1 0 0 0
POINTS 1013
DATA ascii 
-0.0034718989999999988 -0.18074726 0.039647848 
0.017292969800000002 -0.15353575 0.056057163 
0.017292970300000002 -0.38050108000000005 0.082663186 
0.0106342555 -0.39846365 0.083102785 
0.017292969300000002 -0.38118811 0.01215930324 
0.0228822 0.15255903 0.0146999205 
0.0216957465 -0.079998239 -0.0090717 
0.0112013399 0.31692181999999997 0.033814453 
0.017292969800000002 -0.38807450000000004 -0.015399534000000001 
0.017292969800000002 -0.23061837 -0.0497979 
0.0028379293 0.15295467000000001 -0.002905201999999999 
-0.0034718989999999988 -0.23360929 -0.018906160999999998 
0.0024393941000000006 -0.25232045000000003 -0.037900313000000005 
0.0159136326 0.060102731 0.035913401 
-0.0034718989999999988 -0.28877766000000005 0.068099145 
0.002114797 -0.45861711000000005 -0.077595077 
0.0034387068999999996 0.338962 0.019076771 
-0.002135330999999999 0.31616387999999995 0.0057500549 
0.0083140898 -0.024829477000000003 0.034294244 
0.024958 0.22033089 0.0027899336000000007 
0.0112013399 -0.0075656130000000005 0.0058002173 
0.0272932 0.43728657 -0.005012015999999999 
-0.0034718989999999988 -0.37725233 -0.054863020000000005 
0.017292969800000002 -0.22319801 -0.033450715 
0.017292969800000002 -0.29114537 -0.034188814000000005 
0.0167359271 0.020557437499999998 -0.0090717 
0.0112013399 0.47693232999999996 0.025437564 
0.0112013399 0.46078099 0.019069538900000002 
0.0112013399 0.38447981 -0.008615546 
0.017292969800000002 -0.41274692 -0.005043241999999998 
-0.003297590999999999 0.32086099999999995 0.011617274720000001 
0.0174618619 0.345163 0.025035346 
0.0152276437 -0.17524742 -0.08571897399999999 
0.0228822 0.17196853 0.014675653 
0.017292969800000002 -0.21674055 -0.009569833000000002 
0.0112013399 -0.11177735 0.0078481426 
-0.0034718989999999988 -0.18887676 -0.038829222000000004 
0.0005226280000000007 0.0017667610000000004 -8.387000000000325e-06 
0.0219612088 -0.0287631 0.035913401 
0.0171400932 -0.13225 -0.074563406 
-0.0034718989999999988 -0.33273967000000004 0.023125317 
0.0228822 0.33048339 0.027476067 
0.017292969300000002 -0.1714332 -0.060090004999999995 
-0.0008353409999999999 0.25454818 0.002587963300000001 
-0.0034718989999999988 -0.27487363000000004 0.040855915 
-0.003048957999999999 -0.051844135000000006 0.009044645300000001 
0.022957497 0.46971662 -0.0028308299999999995 
0.0112013399 0.11722502 0.006399339 
0.017292969800000002 -0.25540401 0.042501089 
0.0112013399 -0.06911408899999999 0.0181219288 
0.0112013399 0.051896289 0.0156770227 
0.0077027375 -0.33339523000000004 0.107334383 
0.024958 0.31246649 0.02665391 
-0.0034718989999999988 -0.20356677 -0.048881270000000004 
0.022882199 -0.036768306 0.033427677 
0.0112013399 0.00686813 0.025185127 
0.0112013399 0.39638851999999997 0.004290800900000001 
0.0139955232 0.345163 0.009864000099999999 
0.0085711651 0.21852665000000002 -0.007596712 
0.0112013399 -0.17918163 0.032517432 
-0.0034718989999999988 -0.20165089 0.0112136206 
-0.0018630139999999996 -0.33069463000000004 0.105550111 
-0.0034718989999999988 -0.38526796 0.061200589 
0.0112013399 0.07433680100000001 0.030138873000000004 
0.0040131327 -0.12313089999999999 0.031000305 
0.0112013399 0.23496126 0.03159203 
-0.0034718989999999988 -0.33927546000000003 -0.044480778 
-0.0034718989999999988 -0.19965725 0.037975664 
0.0112013399 0.24911647 0.0221825675 
0.022623477 0.41098766 0.0192113402 
-0.0034718989999999988 -0.37785856 0.045810013999999996 
0.0112013399 0.35207239999999995 0.027461977999999998 
0.017292969300000002 -0.38410516 -0.020827740000000004 
0.0067878421 0.20301014 -0.006513163000000001 
0.017292969800000002 -0.22706442999999998 -0.02536384 
0.017292969300000002 -0.30746646 0.029603200000000003 
-0.00026528900000000015 0.30647098 0.0014976620000000003 
0.0162782096 0.31640748999999996 -0.0090717 
0.0145878367 0.25590836 0.035913401 
-0.0034718989999999988 -0.13419098999999998 -0.038508307 
0.017292969800000002 -0.25390167 -0.0013688989999999998 
0.017292969800000002 -0.3528655 0.044645816 
-0.0034718989999999988 -0.24625967 0.044346709 
0.0149564824 -0.07982120599999999 -0.0090717 
0.0112013399 0.15248036 0.0179939851 
0.017292969800000002 -0.24538244 0.060518887 
0.0112013398 0.16159301 0.035011139000000004 
0.017292969800000002 -0.31972231 -0.040244579 
-0.0034718989999999988 -0.19108663 -0.047109939 
0.0112013399 0.35319994 -0.012702947000000001 
-0.0034718989999999988 -0.36075152000000005 -0.037726469 
-0.0006905820000000003 -0.08050262899999999 0.024530888 
0.022882199 -0.071722596 0.021029444799999998 
-0.0034718989999999988 -0.19279338 0.100279957 
0.0272932 0.4492061 0.002300281500000001 
0.022828479 0.33933513 0.034358135 
-0.0034718989999999988 -0.40802897000000005 0.023444944000000002 
0.0112013399 0.39348654 -0.015746772 
0.01179823541 0.0135247935 0.035913403 
0.0112013399 0.32344494999999995 0.01206083357 
0.0112013399 0.034492646 0.0183006133 
-0.0034718989999999988 -0.30528186 0.084508762 
0.017292969800000002 -0.2106276 0.068827946 
0.0112013399 0.16602747 0.0068610845000000005 
0.0219527925 0.14459552 -0.0090717 
0.0027869776000000006 0.338962 0.0011485760000000001 
0.002601532700000001 0.20510681 -0.002609429 
0.0272932 0.41069274 0.0071260151 
0.017292969800000002 -0.40610464 -0.027198355 
-0.0034718989999999988 -0.14318332 -0.09162946 
-0.0034718989999999988 -0.19894082999999999 0.035218461 
0.0228822 -0.035699747000000004 -0.007532848 
0.024958 0.24266432000000002 0.0010529479999999997 
0.0095065464 0.073659681 0.034962969 
-0.0034718989999999988 -0.13764036999999998 -0.041137255000000005 
0.0228822 -0.016876813999999997 0.0043818806000000005 
-0.0034718989999999988 -0.40186046000000003 -0.057180263 
-0.0034718989999999988 -0.16511063 -0.08244913 
-0.0034718989999999988 -0.43249781000000004 -0.07320436799999999 
-0.0034718989999999988 -0.19374576 0.09993077900000001 
0.0112013399 0.054859466999999995 0.0211439817 
0.017292969800000002 -0.20416613 -0.017632808 
0.0228822 -0.03242572 -0.0064761559999999985 
0.0008429549999999994 0.28483968 -0.00040916899999999916 
-0.0034718989999999988 -0.30483128000000004 0.08601088900000001 
0.02255601 0.338962 0.0074219531 
-0.0034718989999999988 -0.30877645000000004 -0.037410881 
0.0228822 -0.08259219599999999 0.0011757309999999993 
0.017292969800000002 -0.3162518 0.01172662846 
0.0138261328 0.39472573 -0.026805546 
0.0112013399 0.063458287 0.025338658 
0.0112013399 0.15908445000000002 0.0038344138000000003 
0.0112013399 0.28983233999999997 0.023254866 
-0.0034718989999999988 -0.11020756 0.10558811600000001 
-0.0034718989999999988 -0.33344354000000004 -0.023795336 
0.0167870619 -0.13225 -0.04587464 
0.004146757000000001 -0.13225 -0.048589341 
0.022882200999999998 0.24767239 0.029474031999999997 
0.0183245371 0.25502819 0.035913401 
0.014433149400000001 0.338962 0.02937137 
0.0272932 0.42709336999999997 0.000642661000000001 
0.0196933443 -0.039550475 -0.0090717 
-0.00010490799999999904 -0.42818792 -0.09656437999999999 
-0.0034718989999999988 -0.12919044 0.11069479600000001 
0.0096438624 -0.047425136 -0.008198276 
0.017292969800000002 -0.24358243999999998 -0.016382804 
0.017292969800000002 -0.13287604 -0.10691342 
0.017292969800000002 -0.33041991000000004 -0.048803232 
0.022882199 -0.15115213 0.025428898999999998 
0.0038446416000000004 -0.00027985799999999915 -0.004015172999999999 
-0.0034718989999999988 -0.17668256 -0.06955911199999999 
0.017292969800000002 -0.19040747 0.0195022453 
0.022780018 0.13550527 -0.00040450000000000035 
-0.0034718989999999988 -0.16301028 -0.021472700000000004 
0.0215793098 0.059866197999999995 0.016851659300000002 
-0.0034718989999999988 -0.17470534 -0.021556757000000003 
-0.0029554349999999993 -0.2958136 0.08250446700000001 
0.012186719070000001 0.101711512 -0.0090717 
0.0111006749 -0.13225 -0.059935361 
0.0112013399 0.25027041 0.012978043810000001 
-0.0034718989999999988 -0.41445531 -0.029909927000000003 
0.0112013399 -0.008681573 -0.001744790999999999 
0.0112013399 0.19162703 0.01272687077 
0.022882200999999998 -0.16533752 0.035138682 
0.017292969800000002 -0.24350448 0.059297346 
0.0182043444 0.40965225 -0.022033511999999998 
0.0112013399 0.12068135 -0.0028601930000000005 
0.0112013399 0.37939139 -0.006494849999999998 
0.017292969300000002 -0.39385988 -0.0286685 
0.0272932 0.41781232999999995 0.01159004791 
0.024958 0.31693308 0.0013541000000000004 
-0.0034718989999999988 -0.33514596 -0.005302131 
0.0078113665 -0.16148704 0.03401232 
-0.0034718989999999988 -0.20470481999999998 -0.02546877 
0.017292969300000002 -0.36357303 -0.032002162 
0.0002504169999999993 0.32411175 0.02633092 
-0.0034718989999999988 -0.19326211 -0.026313435000000003 
-0.0034718989999999988 -0.28976797000000004 0.0152480136 
0.017292969800000002 -0.25142084000000003 0.01195732871 
0.01253002224 -0.3821397 -0.079788394 
0.0112013399 0.1686741 -0.0032464899999999994 
0.022866417 0.43317516 0.023212701000000002 
0.0236829 0.34298429999999996 -0.002599176 
-0.0032024240000000006 -0.060393199 0.0162094314 
0.017292969800000002 -0.15114249 0.061528698 
-0.0034718989999999988 -0.19858803 -0.05881466700000001 
-0.0031478140000000005 -0.049235105 0.0100675171 
0.0112013399 0.37603258 -0.0033925940000000005 
0.0012253660000000003 0.12827718 0.027729899000000002 
-0.0034718989999999988 -0.20796423 0.039549832 
0.017292969800000002 -0.42487968000000004 -0.08981779999999999 
0.0228822 0.20907311 -0.007575975 
0.0228822 -0.11579678999999998 0.0142822586 
-0.003066618 0.32684429 0.0176147888 
0.017292969800000002 -0.3994938 -0.08524058 
0.0228822 0.12949734 -0.004060441 
0.0112013399 -0.056437074999999996 0.035053958 
0.0037605645000000007 -0.0015340519999999993 0.030785975 
0.022882200999999998 0.3339255 0.0156388762 
0.017292969800000002 -0.21911155 0.02645152 
0.0050547006 0.33278674999999996 -0.005042191 
-0.0034718989999999988 -0.38655131000000004 -0.058470009999999996 
0.0028365044000000002 -0.036876887000000004 0.029745638999999997 
-0.0034718989999999988 -0.28481100000000004 0.03442688 
0.024958 0.28863302999999996 0.0160983903 
0.01287445106 0.45837239999999996 0.038967129 
0.0228822 -0.17233779999999999 -0.004475933999999999 
-0.0034718989999999988 -0.22324033 0.071757682 
0.0112442783 -0.047947585 0.035913401 
0.0272932 0.4717633 0.026823488 
0.017292969800000002 -0.19335221 -0.05259004900000001 
-0.0034718989999999988 -0.25026114000000005 0.074861095 
0.0215793098 0.13786222 0.0165310543 
0.017292969800000002 -0.26137523 0.041330064 
0.0112013399 -0.09767643999999999 0.0076031256 
-0.0034718989999999988 -0.32743911000000003 -0.0422577 
-0.0034718989999999988 -0.16847721999999998 0.01182388485 
-0.0034718989999999988 -0.37589617000000003 0.08277888600000001 
0.0272932 0.49050652 0.0209698439 
0.017292969300000002 -0.43527351000000003 -0.038520109000000004 
0.0272932 0.46255849 0.02625324 
0.017292969800000002 -0.33037700000000003 -0.055764712 
0.0112013399 0.27234377 0.031007793 
0.017292969800000002 -0.33973424 -0.034714259000000004 
-0.0034718989999999988 -0.29738505000000004 -0.023701064 
0.017292969800000002 -0.19886191 0.054424569 
0.017292969800000002 -0.21615206 0.051104222 
0.0050830826 -0.13225 -0.044688318000000005 
-0.0018229070000000003 -0.07311812 0.0046995258 
-0.001551631999999999 -0.4548821 -0.10628942 
0.024958 0.20910722 0.0185262379 
0.0112013399 0.13049412999999999 0.0070042484 
-0.0034718989999999988 -0.35852100000000003 0.093786873 
0.009955233800000001 -0.16699257 0.03521459 
-0.0034718989999999988 -0.16638129999999998 -0.029709085000000003 
0.022882200999999998 -0.04300864 0.03475485 
0.017292969800000002 -0.27458401000000004 0.0052574085000000005 
0.0215793098 0.054396265 0.0135366062 
0.0016859490000000008 -0.028029382 0.028306146999999997 
0.023728615 0.2986743 -0.004490565 
0.017292969800000002 -0.31353418 0.049637563999999995 
0.0075787841 -0.32579942 0.102315851 
0.017292969800000002 -0.23344879999999998 -0.008820284 
0.017292970300000002 -0.31118877 0.027057249 
-0.0034718989999999988 -0.13029319 0.11765982000000001 
0.0112013399 0.21802904 0.01137118455 
0.0112013399 0.38157198999999997 -0.013181058 
0.0112013399 0.081938044 0.025743741 
0.017292969800000002 -0.33367647 0.073253118 
0.017292969300000002 -0.41645171000000003 -0.018329410999999997 
0.017292969800000002 -0.36895166 0.11193277700000001 
0.017292969800000002 -0.44134869000000004 -0.10092751 
-0.0034718989999999988 -0.19520609 -0.049244225 
-0.00192173 0.23141284 0.0218099974 
0.017292969800000002 -0.25341447 -0.015802682999999998 
-0.0034718989999999988 -0.29438747000000004 -0.016011961999999998 
0.0031602396 -0.16172804999999998 -0.0090717 
0.0077974232000000004 0.12010407000000001 0.034004502 
0.017292969800000002 -0.39151861000000004 0.088141919 
0.0191677915 -0.09144232 -0.009071702 
0.017292970300000002 -0.36682703 -0.036205273 
0.0112013399 -0.13559116 0.0174095514 
0.0112013399 0.14407726 0.029129586 
0.0202938592 -0.33785580000000004 -0.020997300000000003 
0.017292969800000002 -0.17531204 -0.08104378699999999 
0.013481122 0.071107094 0.035913401 
0.0112013399 0.33118896 0.029459186 
0.0112013399 0.048450231999999996 0.0087915821 
-0.0034718989999999988 -0.12029132000000001 0.082115278 
0.0007216779999999999 0.032143757 0.027099723 
-0.0034718989999999988 -0.40646611000000005 0.039461203 
0.0215793098 0.08904740300000001 0.0030038732999999995 
0.0215793098 0.054547396 0.025092235 
-0.0034718989999999988 -0.19639151 0.081520595 
-0.00290292 0.17293146 0.0185110983 
0.0112013399 0.265099 0.033336794 
-0.0034718989999999988 -0.18106418999999999 0.102338858 
-0.0034718989999999988 -0.20194974999999998 0.036348977 
0.0208164001 -0.34388144000000004 0.030334512 
0.017292969800000002 -0.39817734000000005 -0.014362543 
0.022882200999999998 0.28855218 -0.004230467 
0.0112013399 -0.13211001 -0.003577472 
0.022468228 0.079884753 -0.0090717 
0.0016477220000000008 0.013990800500000001 -0.0014160609999999997 
0.017292969300000002 -0.37412859000000004 0.032737971 
-0.0034718989999999988 -0.29219018 0.056429699 
0.0112013399 0.032402233 0.0202126284 
0.0070270751 0.338962 0.0091355075 
0.0106846161 0.22102621 -0.008781923999999998 
-0.0034718989999999988 -0.42436461000000003 -0.060910663999999996 
-0.0034718989999999988 -0.41487573 -0.032110888000000004 
-0.0034718989999999988 -0.2546329 0.007135332 
0.0228822 0.16488773 0.028203624000000004 
0.017292970300000002 -0.24934114 0.065617193 
-0.0034718989999999988 -0.2120562 -0.026811920000000003 
0.0112013399 -0.029194016000000003 0.0079625039 
-0.0034718989999999988 -0.35804112000000005 -0.048551008 
-0.0034718989999999988 -0.30878304 0.063845683 
0.0199866252 -0.10674652 0.035913401 
-0.0034718989999999988 -0.35679932000000003 0.032828207 
0.0272932 0.37743354999999995 0.027211575 
0.0208164001 -0.34379367 0.026856836000000002 
0.017292969800000002 -0.40456767000000005 -0.010753585000000001 
0.0112013399 0.022817642 0.012584186800000001 
-0.0034718989999999988 -0.34572904000000004 0.057349369 
0.020207849700000002 0.20054792000000002 0.035913401 
0.0215793098 0.12772671 0.0036278669000000003 
0.012379500722 -0.038536205000000004 0.035913401 
-0.0034619360000000005 -0.14495523 0.0133177699 
0.0171387325 -0.45979698 -0.08074709 
-0.0034718989999999988 -0.29981030000000003 0.060904894 
0.0112013399 0.25670718 0.0037014301999999995 
0.0008269599999999998 0.20133765 0.027231444 
0.0272932 0.34896228999999995 -0.0016821019999999996 
0.0144776687 -0.1512668 -0.10059734 
0.0112013399 -0.007319307999999998 0.016089743400000002 
0.024562473 0.40127404 0.019678833399999998 
-0.0034718989999999988 -0.15869713 0.0221176766 
0.017292969800000002 -0.32799442 0.035910674000000004 
-0.0034718989999999988 -0.24177671999999997 0.071618867 
-0.0034718989999999988 -0.22107976999999998 -0.055341496999999996 
0.017292969300000002 -0.40691169000000005 0.053102896 
0.0228822 0.22859041 -0.007974818 
0.004325241299999999 -0.31684549 0.09640006000000001 
-0.0034718989999999988 -0.16507470999999999 0.00017984799999999981 
0.017292969800000002 -0.14813574999999998 -0.071110658 
0.0205268799 -0.34147678000000004 0.036855294 
0.0112013399 -0.13429655 -0.0027076879999999998 
-0.0034718989999999988 -0.45236950000000004 -0.09257976999999999 
0.0215793098 0.08864148000000001 0.0173074467 
-0.0034718989999999988 -0.13602258 -0.040154386 
0.0272932 0.36359818 -0.013986578000000001 
0.01290106831 0.38962661 0.023436824000000002 
0.009229260900000001 -0.2507536 -0.038872454 
0.0112013399 0.3777792 -0.010413247999999998 
-0.0034718989999999988 -0.374943 0.042442721 
0.017292969800000002 -0.33761485 0.085830078 
0.017292969800000002 -0.36262707 -0.050839208000000004 
-0.0034718989999999988 -0.16620584 -0.076615884 
0.0112013399 0.44672558999999995 0.0105936806 
0.0112013399 0.30511694 -0.004628117999999999 
0.017292969800000002 -0.26197968000000005 0.08426594000000001 
0.017292969800000002 -0.43447234 -0.081026658 
0.000430034000000001 0.025029407 0.026674509 
-0.0034718989999999988 -0.25606893000000003 0.07632580400000001 
-0.003243154 0.056679639999999996 0.0110540181 
0.0112013399 -0.16556029 0.030629214000000002 
0.0083111543 0.13075917 0.0342926 
0.017292969800000002 -0.26069419000000005 5.463600000000027e-05 
-0.0034718989999999988 -0.33604391 0.022771558 
0.022882200999999998 -0.13061866 -0.004335079 
0.0007118469999999998 -0.09856363 -0.00024513099999999913 
0.017292969800000002 -0.2581277 0.0161865739 
0.017059155200000002 0.37419693 0.034734102 
-0.0022183059999999998 -0.025045491000000003 0.0208128639 
-0.0034718989999999988 -0.24151869 0.080270321 
-0.0034718989999999988 -0.4569862 -0.079164639 
-0.0034718989999999988 -0.16469166999999998 0.0180484554 
-0.0004316509999999999 0.31874965 0.025026195 
-0.0034718989999999988 -0.36907224 0.07891097700000001 
0.0112013399 -0.12644961 -0.0002608479999999993 
0.006165299 -0.4005671 -0.08650174699999999 
0.0207197205 -0.15022259999999998 0.073587437 
0.0112013399 -0.080234773 0.01184663124 
0.010309154800000001 0.32932723999999997 -0.008571365 
0.025681924000000002 0.3446921 0.0107193259 
0.0112013399 -0.004115692999999998 0.024765579 
0.0112013399 -0.11902629 0.0180435045 
0.0112013399 0.44688793 0.024343945 
0.017292969300000002 -0.19126682 -0.060915269 
0.0112013399 0.001315305000000001 -0.0021570649999999997 
-0.0034718989999999988 -0.21023564 0.046437476 
0.0188190988 0.13945364000000002 0.035913401 
0.0112013399 0.41107498 -0.009945137000000001 
0.017292969800000002 -0.28547473 0.0018634800000000007 
0.0112013399 0.35567282 0.030937223 
-0.0034718989999999988 -0.23540993 0.046162151 
0.017292970300000002 -0.34959374000000004 0.080332257 
0.0112013399 0.18424083 -0.006712865 
0.0112013399 -0.029239773000000004 -0.006508768999999999 
-0.002190978999999999 0.024899947999999998 0.0209047417 
0.0185119761 0.067697801 0.035913401 
-0.0034718989999999988 -0.19785724999999998 -0.012452939000000001 
0.0001800010000000008 0.28300635999999996 0.026196221999999998 
0.0112013399 0.25917779 0.035480552 
0.017292969800000002 -0.21014731 0.07542372500000001 
0.0228822 -0.17359562 0.032194255 
-0.0034718989999999988 -0.15343732999999998 0.024803115 
0.0272932 0.48863407 0.030941949000000003 
0.0112013399 0.26004259 0.0195355494 
0.0112013399 0.39535520999999996 0.0202531157 
0.0112013399 -0.10888025 -0.00526013 
0.0228822 0.33408428999999995 0.028353952 
0.0204358226 0.22734579 0.035913401 
-0.0034718989999999988 -0.31970172 0.047524120999999996 
0.0215793098 0.097770885 0.002116754 
0.017292969800000002 -0.36985092 0.103542433 
0.024958 0.24997249 0.0063713905 
-0.0034718989999999988 -0.41255368000000003 -0.014633151999999998 
0.0101723174 -0.18961598999999998 0.025896245999999998 
-0.0034718989999999988 -0.31163178 -0.049026269000000004 
-0.00044330899999999937 -0.082283526 0.0018381500000000002 
-0.0020357959999999994 -0.25967924000000003 -0.035174429 
0.0112013399 0.32448185999999996 0.003980968600000001 
0.017292969800000002 -0.13881986999999998 -0.025353748000000002 
0.017292969800000002 -0.3739738 0.030704409000000002 
-0.0034718989999999988 -0.42653565000000004 -0.03184656 
0.017292969800000002 -0.33775924 0.065422092 
0.017292969800000002 -0.23381224 -0.022829063000000004 
0.017292969800000002 -0.32855289000000004 0.041033587 
-0.0034718989999999988 -0.18176610999999998 -0.076505854 
0.017292969800000002 -0.39201529 -0.044102836 
0.017292969800000002 -0.19311169 0.0138660105 
0.022882199 0.11283673000000001 -0.007744677 
-0.0034718989999999988 -0.27546625 0.064494722 
0.0112013399 0.21974516 0.0028769220000000005 
-0.0034718989999999988 -0.39185105000000003 0.052514628 
0.017292969800000002 -0.23222335 0.058178723 
0.0228822 -0.15724333 -0.0017209879999999997 
-0.0034718989999999988 -0.35276653 -0.044422403 
-0.0034718989999999988 -0.31583713 0.07995384200000001 
-0.0034718989999999988 -0.28174435000000003 0.050080481999999996 
0.0208164011 -0.33944143000000004 0.0111637031 
-0.0025001710000000007 -0.13225 -0.029286731000000003 
0.0112013399 -0.11844699 -0.005630303000000001 
0.025746003 0.34516296999999996 0.027413711 
0.011985399 -0.34388991 0.11426811 
-0.0034718989999999988 -0.3478546 0.040912116 
-0.0034718989999999988 -0.36757244 0.110678912 
0.0112013399 0.34658484 0.030596673999999997 
0.0112013399 0.33670375999999996 0.025337464 
-0.0034718989999999988 -0.18938918 0.094956629 
0.023399284 0.34253095 -0.0029847580000000005 
-0.0034718989999999988 -0.16833188 -0.08863646 
0.0156691216 -0.13554685 0.035913401 
0.017292970300000002 -0.36139168000000005 0.0150437098 
-0.0034718989999999988 -0.40142266000000004 0.024370371000000002 
0.0108682026 -0.41359876 -0.09124935999999999 
0.0112013399 -0.046359684 -0.0025013180000000006 
0.0059404005 -0.42790885 0.004440941300000001 
-0.0034718989999999988 -0.31650318 -0.039822056 
-0.0034718989999999988 -0.32085176000000004 0.068301604 
0.017292969800000002 -0.16430882 -0.08936656 
0.0228822 0.13928731 -0.0021942939999999994 
0.0102651009 0.069254719 0.035388362 
0.0205697012 0.22049111000000002 0.035913401 
-0.0034718989999999988 -0.26474144000000005 0.0098458886 
0.015076287 0.38799123999999996 0.023964475 
0.006134156500000001 0.33010952 0.032800191 
-0.0034718989999999988 -0.16204986 -0.09174264 
0.0215793107 0.085982919 0.0042371288 
-0.0034718989999999988 -0.29411335 0.0137855023 
0.0228822 0.29423653 -0.007424062 
0.024958 0.26862882 -0.004981771000000001 
0.017292969800000002 -0.18221205 -0.018403967 
0.022882199 0.17278709 -0.004572779000000001 
0.017292969300000002 -0.32376228 -0.0012157639999999994 
0.0228822 0.16865943 0.0093658587 
0.0083265653 -0.33886822 0.110950306 
0.017292969800000002 -0.19006962 -0.064268589 
0.0029582832 0.14806996 -0.003055782 
0.0112013399 -0.11704909999999999 0.0081858555 
0.0044495486 0.093483061 0.031370644 
-0.0001861840000000007 -0.13225 0.035828455 
0.0272932 0.41842838 -0.005399883999999999 
0.0272932 0.36503262999999997 -0.015770528 
-0.0034718989999999988 -0.29906140000000003 0.035898671 
-0.0034718989999999988 -0.30817683 -0.0066153739999999985 
0.0215793098 0.12440184 0.0206550904 
0.0112013399 0.37833659 0.0208166143 
0.0228822 -0.028241954 0.0064237993000000005 
0.0112013399 0.45835499999999996 0.0065083745000000005 
0.0228822 -0.086898565 0.0155062889 
-0.0034718989999999988 -0.34894030000000004 0.08603387400000001 
-0.002908154999999999 -0.13225 -0.045126132 
0.0112013399 0.33858544999999995 0.029944252999999997 
0.017292969800000002 -0.31737493 0.00162494 
0.01158088504 0.31749175999999996 0.035913401 
-0.0034718989999999988 -0.16712616 0.072285634 
0.0029551074000000004 -0.016003811 -0.0030518100000000003 
-0.0034718989999999988 -0.38469158000000003 -0.008113462 
0.0228822 -0.063632339 0.0201515708 
-0.0034718989999999988 -0.13795118 -0.025359943000000003 
-0.0031091650000000005 -0.07121293999999999 0.0171745042 
0.0023252576999999996 -0.43850709000000004 -0.10032378 
0.017292969300000002 -0.25685452000000003 0.056583845 
0.017292969800000002 -0.22552007 0.07060635900000001 
0.0104132784 -0.18961598999999998 -0.0010664509999999995 
0.0112013399 -0.074236944 0.0030651207999999996 
-0.0034718989999999988 -0.28060223 0.062489298 
0.0056154872 -0.43400057000000003 -0.011832819999999999 
0.017292969800000002 -0.22535354999999999 0.085470111 
0.021739744999999998 0.338962 -0.0005331090000000004 
0.024958 0.29309166999999997 0.0067683313 
-0.0034718989999999988 -0.21599337 0.059815202 
0.013459988 0.18907653 0.035913401 
0.017292969800000002 -0.36874358 0.11811324000000001 
0.0112013399 0.24963467 0.033379363 
0.0112013399 -0.076867625 0.0179003556 
0.0228822 0.14445847 0.016209186 
-0.0034718989999999988 -0.16708066 -0.055234223000000006 
0.0069279284 -0.40445133 -0.08791681 
0.0222711856 0.059650682 -0.00040449899999999914 
0.022882199 -0.15073207 -0.004903237999999999 
0.0075145563 0.33319668999999996 -0.007004168999999999 
0.0179458521 0.18726386 -0.0090717 
0.017292970300000002 -0.19092499 -0.053426966 
0.0112013399 0.18623303 0.0183155084 
-0.0034718989999999988 -0.35460021 0.052362971 
-0.0034718989999999988 -0.36760728000000004 -0.039954338 
0.0112013399 -0.17209804 -0.0020353899999999998 
-0.0034718989999999988 -0.31167145 0.0048089097 
0.0154736984 0.338962 0.0150084528 
0.0112013399 -0.050125841000000004 0.03434155 
0.0148786818 -0.12754299 -0.0090717 
0.017292969800000002 -0.15042039999999998 -0.039460115000000004 
0.017292969800000002 -0.13936089 0.052900404 
-0.0034718989999999988 -0.37804289 0.048633162 
-0.0034718989999999988 -0.24833964 0.003149448400000001 
-0.003392290000000001 0.1410839 0.01259712258 
0.0165441213 0.12647853 -0.0090717 
0.017292969800000002 -0.40005459000000004 -0.07724872199999999 
0.017292970300000002 -0.23892192999999998 0.08525621900000001 
-0.0034718989999999988 -0.34339790000000003 -0.038975589000000005 
-0.0034718989999999988 -0.19995077 0.06999912900000001 
0.017292969800000002 -0.14310065 -0.06828435499999999 
-0.0034718989999999988 -0.18499885 -0.07605575699999999 
0.0040679671 -0.43110909000000003 -0.004108425000000001 
0.0272932 0.40038822999999996 -0.009242735 
0.017292969800000002 -0.40038477 -0.025629922 
-0.0034718989999999988 -0.35804866 0.1126456 
0.0228822 -0.043758664 0.024021699 
0.0069369547 -0.45309387 -0.062839992 
0.026889898000000002 0.48114984 0.041470912 
0.0228822 -0.05040648500000001 -0.007948096 
0.022882200999999998 -0.15945726999999998 0.0012564120000000002 
0.0272932 0.47471339999999995 0.0025985729000000003 
0.020055445800000002 -0.228604 0.0140253465 
0.0272932 0.4088207 0.0094333442 
0.017292969300000002 -0.36355941 -0.012069261999999999 
0.017292969800000002 -0.39121844 0.030413311 
0.0146493543 -0.14620452 -0.10373816 
0.0112013399 0.4354222 -0.000911898999999999 
-0.0028276069999999993 0.22469515 0.0187643137 
-0.12821691000000002 -0.03345672000000001 0.0963987210601 
-0.27978372 -0.06441217 0.069074863 
-0.12851568000000002 0.069670001 0.09640127155 
0.159749411 0.142012611 0.0946713244 
0.118752707 0.21035619 0.0906060732 
-0.31569981 -0.05587887000000001 0.11450358499999999 
-0.10180700999999999 0.23059259999999998 0.106687108 
0.084389299 0.25106404 0.053327575 
0.209529 0.26982129 0.113134693 
0.067300835 0.24017038000000002 0.146622989 
-0.1862589 0.120764699 0.09639872106 
-0.02923215 0.187530793 0.09640127155 
0.32530954 0.23765672 0.121663708 
-0.13804347 -0.03413606000000001 0.12330064 
0.209529 0.20247088000000002 0.156060096 
-0.21967953 -0.04095552000000001 0.09640127155 
0.3005077 0.21557597 0.09639872106 
-0.16810723 0.021660714999999997 0.135292198 
-0.10970635 0.009908533999999997 0.0963987210601 
-0.16930463 0.0017129699999999942 0.057507802 
0.4041006 0.20832598 0.09639872106 
0.148172453 0.23917606000000002 0.066067595 
0.050435163 0.20379809 0.1026517836 
-0.17374714000000002 -0.012592030000000004 0.09640127155 
-0.18051326 -0.111031 0.086654418 
0.28643502 0.28044603 0.09639872106 
0.45431788 0.21694241 0.09639872106 
-0.12044501 -0.10907035 0.112018308 
0.149589952 0.24019126000000002 0.147572856 
0.171978272 0.23960303 0.103329378 
-0.23597946000000003 -0.11086416 0.09640127155 
0.129442625 0.19527781 0.138447985 
-0.08212190000000001 0.038763493 0.0694558 
0.209529 0.24052606999999998 0.110241933 
0.191641129 0.23452803 0.09640127155 
0.163646892 0.21963212 0.071486624 
-0.017697779999999996 0.21390859 0.0963987210599 
-0.23501860000000002 -0.00039047000000000387 0.09640127155 
-0.20222642000000002 0.187981002 0.09640127155 
0.056283999 0.25972898 0.137233943 
0.11917627 0.18524560299999998 0.115546428 
-0.06661829000000001 0.1063808322 0.070472499 
0.20469684999999999 0.19776201 0.15939304199999998 
-0.13309167 0.123997601 0.1233442 
-0.0018233289999999985 0.173763797 0.110509582 
-0.01092485 0.147835001 0.06919898399999999 
-0.13465949 -0.061672500000000005 0.083123616 
0.06740562 0.19518060199999998 0.080921324 
0.183600299 0.24002942 0.139306377 
0.27073649 0.25813305 0.1061661382 
-0.20115142000000003 0.057871595 0.062004845 
-0.28696748 -0.11103099000000001 0.0930954843 
-0.04358419000000001 0.26044724 0.111981701 
-0.03866480000000001 0.24968139 0.086019757 
0.166472383 0.25732703 0.139077104 
0.28132876 0.274703 0.09662616801 
-0.08565321999999999 0.147835001 0.067107409 
0.061194822 0.23329798000000002 0.110119913 
0.0017591639999999936 0.172472603 0.11801060099999999 
0.170386769 0.2795091 0.0975449783 
-0.02801903 0.1022917836 0.122327501 
0.25120834 0.2177311 0.0963987210601 
0.20993409000000002 0.20439889 0.107177099 
0.16789575699999998 0.193305172 0.136934053 
0.21834355 0.22600330000000002 0.089245973 
-0.03384886999999999 0.23264036 0.082874 
-0.05142861 0.20329259 0.09640127155 
-0.1991175 0.0864145736 0.066683609 
0.183600299 0.25927826 0.12316112900000001 
-0.08991637000000001 0.199693 0.13227427 
-0.06296731000000001 0.147835001 0.13470606499999999 
-0.016819070000000005 0.172519699 0.144354645 
-0.049042810000000006 0.25266188 0.0901602202 
-0.022071229999999997 0.25657826 0.09640127155 
-0.08513997999999999 0.082502639 0.0963987210599 
0.22439330000000002 0.2549211 0.117781151 
-0.05752760999999999 0.053372454 0.083632085 
-0.18390264 0.115724837 0.09640127155 
0.059997175 0.26873613 0.114183379 
0.152408857 0.135790128 0.0834366 
0.32813097 0.28272001 0.091930955 
0.051090568 0.20178404 0.14004920399999998 
-0.19955226000000004 0.038250934 0.135292198 
-0.10862242000000001 0.177698195 0.09640127155 
-0.22068589 -0.08819396 0.0613866 
0.35485399 0.19438339 0.0963987210601 
0.176013432 0.23424768 0.122103378 
0.42655858999999996 0.23148351 0.11957379 
-0.08154533000000001 0.11593753500000001 0.09639872106 
-0.15024915 0.18219161 0.070472499 
0.34699970999999996 0.192565001 0.108798729 
-0.04593765000000001 0.23020756999999997 0.0885209468 
-0.014435890000000007 0.129202783 0.083436599 
-0.07806740999999999 0.25253967 0.111981701 
0.172853649 0.25741101 0.09640127155 
-0.02247871 0.11938354 0.070472499 
0.183600299 0.25662523 0.09606043315 
-0.12778416999999997 0.1063786203 0.09640127155 
-0.11413954999999999 0.199693 0.065000888 
-0.17856314 0.049381949 0.057507802 
0.2636354 0.27057562 0.09640127155 
-0.24406090000000003 0.020685673 0.0963987210601 
0.060084148999999996 0.183761038 0.081026563 
0.53347836 0.274703 0.0977865948 
-0.23418429000000002 -0.10323011 0.0963987210601 
0.047497485 0.24743959999999998 0.128091544 
0.0045893790000000045 0.21816637 0.134385221 
0.13029189 0.183161244 0.11117339700000001 
-0.22687592 0.048001487 0.09640127155 
0.06963599100000001 0.26877097 0.078746851 
0.23053533999999998 0.24195755000000002 0.114633994 
0.34703625 0.26109458 0.078126155 
-0.12619362 0.158425122 0.122327501 
0.079912469 0.22255956 0.09639872106 
0.45132715 0.20452093999999998 0.09639872106 
-0.26109793000000003 -0.00808876 0.09640127155 
-0.13383811 0.04161074 0.09639872106 
0.49966276 0.26464387 0.085110244 
0.36965916 0.206411 0.108337195 
-0.15252879000000003 0.134224914 0.09640127155 
0.23916637000000002 0.23201438000000002 0.111100657 
-0.08318674999999999 0.16161862700000001 0.143939402 
-0.03547493 0.16813668599999998 0.13690460100000001 
0.183600299 0.23169881999999997 0.060392335 
-0.024426569999999995 0.19319029100000001 0.09639872106 
-0.29595264 -0.008485389999999995 0.0879347546 
0.21258162 0.24222008 0.114668425 
-0.18510770000000004 0.032692141999999993 0.09640127155 
-0.31525709 -0.08896532 0.0963987210599 
-0.205924 -0.03500742 0.09639872106 
0.38801348999999996 0.21661748 0.083436599 
0.021360329999999997 0.20910063 0.122327501 
-0.09646057000000001 0.015093124999999999 0.09639872106 
0.071794201 0.171469398 0.099562011 
0.179608941 0.2584656 0.076128511 
-0.31368344000000004 -0.11103099000000001 0.110206157 
-0.04045955 0.0898563986 0.070472497 
-0.2873682 -0.049218479999999995 0.09640127155 
0.49926824 0.22882422000000002 0.118145076 
-0.06859697999999999 0.172459438 0.143088296 
0.021292582000000004 0.21326638 0.127139026 
0.078121539 0.10118651 0.0926510101 
0.21344097 0.24869109 0.113601226 
0.12454224 0.20052859 0.141749963 
-0.05345388999999999 0.26149742 0.0865171001 
0.049830425 0.1034783794 0.0924515657 
0.129960503 0.26866304 0.09639872106 
0.148909539 0.25091817 0.1031869434 
0.09642098456 0.27796806 0.109253167 
0.33647119 0.21033569000000002 0.0834366 
-0.13944943999999998 0.151290841 0.09639872106 
0.24842007 0.22464081000000002 0.0944200918 
0.37292930999999996 0.27315361 0.09640127155 
0.055930536 0.24169572 0.06502356000000001 
0.040202275 0.173763804 0.1017950581 
0.24920335999999998 0.23415575 0.072119411 
-0.17806723000000002 0.19458451100000002 0.122327499 
0.153379179 0.26014642 0.13691362 
-0.20778849 0.170135714 0.11999510199999999 
0.1975682 0.17206347 0.0869422255 
-0.05455422 0.2719877 0.10263977 
-0.047337580000000004 0.26272289 0.0808178 
-0.2383249 -0.041627700000000004 0.13302624200000002 
-0.25256964000000004 -0.08049933 0.09639872106 
0.03375899 0.27873597 0.1034189964 
0.109338298 0.173763804 0.1041302866 
0.09664160929 0.17583437200000002 0.0963987210601 
-0.20766415 0.061445374 0.064437669 
-0.19496276 0.110872893 0.09639872106 
0.12930877899999998 0.27153826 0.124214254 
-0.05525037000000001 0.167297371 0.09640127155 
-0.054657760000000014 0.21800907 0.09640127155 
0.048668787 0.20483492 0.0905017847 
0.36996409999999996 0.26800729 0.0915727409 
0.1030148019 0.23247508 0.11724652299999999 
0.51701999 0.27250231 0.09639872106 
-0.08806436999999999 0.060091507 0.09639872106 
-0.1377027 -0.06775901 0.0938307278 
0.28301314 0.2799621 0.09639872106 
0.158928014 0.23364352 0.109285682 
0.38442124 0.20788041000000002 0.0963987210599 
0.170864515 0.24918842000000002 0.127767663 
-0.057749919999999996 0.174229689 0.070472499 
-0.10913875999999999 0.192057051 0.070472499 
0.130142324 0.23495930999999998 0.107209168 
0.115122063 0.21414709999999998 0.0893354065 
0.44625697 0.21539608 0.09640127155 
-0.31056290000000003 -0.06547631 0.070472499 
0.15334823 0.135015718 0.0911237042 
0.25133548 0.27228963 0.1031116199 
0.174627572 0.18333867199999998 0.111350752 
0.145979792 0.23383882 0.108814155 
0.195236929 0.19896171 0.129971757 
0.40086208 0.278607 0.0999742619 
-0.08807617 0.154529929 0.09640127155 
0.23528677999999997 0.25383482 0.082021211 
0.025964148000000006 0.26273788 0.0978040399 
0.059534579 0.27956025 0.09715654429 
-0.07026218999999999 0.062064562 0.070472497 
0.076235099 0.184875943 0.074264441 
0.53429855 0.199488 0.084085133 
0.023861937 0.26529603 0.070472497 
0.49446842999999996 0.20745786 0.083436601 
0.32840044 0.19724973 0.1093629 
-0.15930285 0.199693 0.055082116 
0.22253949 0.26363883 0.084290709 
-0.28096353 0.0019051060000000036 0.09640127155 
-0.15303757 -0.040624160000000006 0.09640127155 
-0.23285746000000002 0.052375633 0.09640127155 
-0.23393532 -0.06126542 0.064606473 
-0.12182506 0.18035779899999999 0.122327501 
-0.13447599999999998 0.010922544000000006 0.128875706 
-0.13216325 -0.11103099000000001 0.122833684 
0.080802034 0.24596716000000002 0.13804829899999999 
-0.11711746999999999 0.147835001 0.05367643 
-0.13125662999999999 0.054922763 0.133329969 
0.011837713 0.1034783799 0.1017291209 
-0.09900298 0.046146847 0.123344201 
-0.04308092000000001 0.20773809999999998 0.054707732 
-0.16975292000000003 0.199693 0.054900952 
0.49707297 0.22646416000000003 0.0881344134 
0.20758878 0.186975799 0.104846577 
-0.17220055 -0.0511552 0.09640127155 
0.39815935999999996 0.24468785999999998 0.078325506 
-0.23992356000000004 0.06602915 0.0694558 
-0.02480061 0.147835001 0.062042713 
0.45480613 0.192565009 0.085155307 
0.067745901 0.21245491 0.1027632187 
0.28844718 0.20231717 0.09640127155 
-0.06723838 0.042959921 0.108812825 
0.29536097 0.25680416 0.117994154 
0.21246417 0.274703 0.0990648776 
-0.03068776999999999 0.26124325 0.111981699 
-0.15229531000000002 -0.08335403000000001 0.09640127155 
0.21935115 0.25987492 0.1024753888 
-0.1977159 0.1062073343 0.09640127155 
-0.32676726 -0.1042866 0.09640127155 
0.07324852 0.21601462 0.125505566 
0.25500443 0.24854519000000003 0.079138273 
0.41197399 0.22686002 0.1055959424 
-0.08999642000000001 0.061279021 0.122327503 
0.0991980376 0.21068458 0.06479834000000001 
0.12712347499999999 0.25752091 0.072573485 
0.47868419 0.21882511 0.1058996141 
-0.15463191000000004 0.20065739999999999 0.13363993899999999 
0.168843336 0.24809975 0.09640127155 
-0.08979139000000001 0.026453993999999995 0.120019955 
0.009636759999999994 0.171469398 0.1059131109 
0.51708857 0.23128221 0.082260934 
-0.18076994000000002 0.0071558949999999955 0.09640127155 
-0.15180064 0.038649041 0.09640127155 
0.184518277 0.191580929 0.065696036 
0.40415815 0.22387465 0.078725438 
-0.06792474999999999 0.18026588100000002 0.122327503 
-0.18518903000000003 0.195988305 0.070472499 
0.11003368 0.17492485800000002 0.10521809830000001 
0.1047855223 0.24607211 0.064527962 
-0.07480801 0.22568218 0.080512427 
0.007835694000000004 0.16693143500000002 0.0890437354 
0.34175477 0.24367926 0.078193312 
-0.05950513 0.062453817 0.0694558 
-0.10494722 0.022382690999999996 0.0963987210601 
0.023280187999999993 0.26943655 0.09639872106 
-0.16044613000000002 0.168646097 0.143939402 
-0.30448093000000004 -0.028953379999999987 0.108397297 
-0.0022889299999999946 0.28232598 0.1020536701 
-0.07958298000000001 0.24611809 0.0865171001 
0.13988647199999998 0.23041249000000003 0.09639872106 
-0.21262863000000004 -0.06521111 0.09640127155 
-0.19671168 0.132547274 0.09640127155 
0.24133775000000002 0.25917911 0.0886464103 
0.39146823 0.274703 0.0928982753 
-0.11665347999999999 0.008256248999999993 0.07026186 
-0.12796976 -0.04829275000000001 0.1020663728 
0.23735879 0.23732606 0.071179829 
-0.19414561000000002 0.194790631 0.09639872106 
0.41523942999999996 0.28272001 0.0977713866 
-0.16396659000000002 -0.10413029 0.0963987210601 
-0.05125766 0.27635286 0.0901602198 
-0.027778319999999995 0.0931341106 0.1025382577 
0.07851243399999999 0.23755642 0.147919424 
4.7453000000002854e-05 0.25267559 0.09640127155 
-0.10064637 0.26419336 0.0865171001 
0.49312583 0.192565001 0.0937992144 
0.46701247 0.206411 0.085109794 
0.45115837999999997 0.22001998 0.10878357599999999 
0.147518955 0.25759216 0.120054381 
0.28574184 0.28272001 0.0907347732 
0.164414652 0.26850944 0.09640127155 
-0.08271532999999999 0.22594764 0.070472499 
-0.20459237000000002 -0.05984836 0.128542255 
-0.15611770000000003 0.19814336999999999 0.048860598 
-0.17111724 0.22285739 0.0808178 
0.21268841 0.25350494 0.11103191 
-0.1129264 0.0049650370000000055 0.09640127155 
-0.042449200000000006 0.123192407 0.070472499 
0.20297906999999998 0.22841812 0.09640127155 
0.36949012 0.28060699 0.09640127155 
0.28704687 0.2304754 0.082880001 
0.126299314 0.22037559 0.0963987210601 
-0.28316554 -0.03808609 0.069455802 
-0.016942 0.2462916 0.0872023588 
-0.09578397000000001 0.035238515 0.09639872106 
0.36086377999999997 0.26240865 0.0963987210601 
-0.011614570000000005 0.165155254 0.1093629 
0.23235136 0.24579088 0.12192457 
0.122167265 0.21857975000000002 0.06991913899999999 
0.25140605 0.23123426000000002 0.07332944899999999 
-0.05095922000000001 0.126007985 0.122327499 
0.051919643 0.1034783799 0.1050121289 
0.0953741482 0.24573877 0.06448403 
-0.1349166 0.075322578 0.059068065 
0.047553159 0.26775909 0.129139185 
-0.23064982 -0.007022349999999997 0.135292198 
-0.13766431 -0.111031 0.067536373 
0.20132034 0.25685932 0.129643708 
0.194228627 0.22701005000000002 0.076047689 
-0.15741672 0.19760785 0.09639872106 
-0.09617477 0.17249751800000002 0.140904717 
-0.29671212 -0.010308150000000002 0.0899762738 
0.41892409999999997 0.24453256 0.12209015 
-0.05962162 0.054488866999999996 0.10871302099999999 
-0.034873119999999994 0.20830397 0.13791214699999998 
0.51898424 0.26613254 0.107043031 
0.004596338000000005 0.26072774 0.12581499699999998 
-0.20539694000000003 0.079220135 0.09640127155 
0.005947283999999997 0.22662759999999998 0.122327501 
-0.0017778350000000054 0.145540599 0.1015257322 
-0.05610406 0.147835001 0.139610957 
0.138496537 0.23530742 0.106755089 
0.5354089200000001 0.23812394999999997 0.074861731 
0.107713966 0.23996436999999998 0.046945147 
-0.21160247 0.007654316999999994 0.057507802 
0.054060004 0.26391356 0.09640127155 
0.36039904 0.24503831999999998 0.078371439 
0.45365296 0.28272001 0.1016548624 
-0.15506738000000003 -0.02172813 0.130071647 
0.044353217 0.20746219999999999 0.128286067 
-0.20011919 -0.10992887 0.0963987210599 
0.0877079124 0.24793327999999998 0.09639872106 
-0.130569 0.130999364 0.122327501 
0.20952899 0.196248464 0.068824172 
0.0055437980000000026 0.174299784 0.048814937 
0.070955295 0.188805215 0.133231208 
0.46075962 0.21683403 0.09603651097 
-0.18588214000000003 0.060880456 0.09639872106 
0.192728713 0.19937295 0.09640127155 
0.27974061 0.23392893999999997 0.120586641 
0.0900101874 0.25308724 0.0883486847 
0.52431969 0.23584449000000002 0.075484197 
0.182470977 0.154331818 0.083551225 
0.0951561181 0.27304115 0.09639872106 
-0.35309058 -0.09592452 0.0877178701 
0.013797127000000006 0.22064856 0.057997346 
0.084479946 0.27787868 0.082867696 
0.065876402 0.195095077 0.080268755 
-0.03665813 0.25698685 0.10263977 
0.45124689 0.26900188 0.08968838009999999 
0.058094375 0.25737268 0.09639872106 
0.171356954 0.180913664 0.09640127155 
0.40508026999999996 0.22182380000000002 0.111401258 
-0.09955067 0.008312546000000004 0.096422110549 
-0.15245577 0.016605659999999994 0.135292198 
-0.17290031 0.012053869999999994 0.135292198 
-0.018218700000000004 0.24188275999999997 0.0886009981 
0.183600299 0.21383666 0.051764943 
-0.09475618000000001 0.172061533 0.070472497 
-0.20319512 -0.09468080999999999 0.131412901 
0.077791622 0.27014137 0.071691595 
0.23879873000000001 0.21845543 0.1093629 
-0.05730300000000001 0.20271887 0.0933538755 
0.0055437980000000026 0.16318782399999998 0.075587891 
0.41689254 0.20066787 0.09640127155 
0.1007470263 0.23923961 0.09640127155 
-0.008224999999999996 0.29064209 0.08342770099999999 
-0.22736558 0.022835231999999997 0.06067482 
0.051278259 0.23994999 0.047485012 
0.0989273999 0.23484047000000002 0.107364206 
0.46852025999999997 0.25572676 0.109299408 
-0.16374096 0.199693 0.065953951 
0.456857 0.28209055 0.08968838009999999 
0.112197006 0.24164052000000003 0.09640127155 
-0.014809459999999997 0.173763797 0.1045192777 
-0.10028113000000001 0.147835001 0.146530509 
0.029607101999999996 0.157359458 0.10288105 
-0.17130931 0.11982462199999999 0.09639872106 
0.16423885500000002 0.25403916 0.051199917 
0.127927512 0.21693089999999998 0.09639872106 
0.139213506 0.125640649 0.09422498879999999 
0.49125756 0.20115856999999998 0.09640127155 
-0.11608943000000001 0.027503230000000004 0.0963987210601 
-0.11405294 0.128238976 0.09640127155 
0.3555297 0.25640876 0.11776368300000001 
0.26020513 0.25439619 0.07367294099999999 
-0.12044501 -0.08832637 0.070693273 
0.28323563 0.25907818 0.076552778 
-0.20178559000000001 0.078531513 0.126833688 
0.46916351 0.24895107 0.113493413 
0.048150506 0.20244256 0.139402065 
-0.20519721000000002 -0.02288574 0.057507802 
-0.14775007 -0.10601087999999999 0.09639872106 
-0.17047315000000002 -0.06596539 0.09640127155 
0.4780925 0.22443589000000003 0.09682331501 
0.11380373099999999 0.19840164 0.09640127155 
-0.22286134000000002 -0.1037123 0.131412901 
0.0902226696 0.21341688 0.065722981 
-0.20135241000000004 0.19646031 0.0904946675 
-0.33847337 -0.10579483999999999 0.120103355 
0.29309738 0.23938135 0.070909213 
0.191730082 0.192897908 0.11048153399999999 
0.49013072999999996 0.23457103 0.112701835 
0.013743274 0.19951452 0.128421448 
-0.14010579 0.038685359 0.09639872106 
-0.21505179000000002 0.177231423 0.119579872 
-0.17487498 -0.015600359999999994 0.057507802 
-0.28192066 0.011741615999999996 0.070472499 
-0.13729855000000002 0.124924993 0.122584577 
0.183600299 0.25741374 0.067164982 
-0.16251900000000002 -0.08977283000000001 0.131412901 
-0.27285867 -0.026558189999999995 0.124334579 
0.181528404 0.186629221 0.130395487 
0.39773513 0.26743091 0.10391043529999999 
-0.0016712319999999947 0.28667668 0.076127399 
-0.012202610000000003 0.176191196 0.09639872106 
0.18198923 0.27613904 0.109644774 
0.120354781 0.21944553 0.044409115 
-0.18033152000000002 0.22604401000000002 0.071878813 
0.42926816 0.274703 0.0912650543 
-0.20363682 -0.11103102 0.09703493912 
-0.33847376 -0.08527760999999999 0.078538678 
-0.13538053 -0.06309232999999999 0.0963987210601 
0.079884499 0.11425360600000001 0.0952684913 
-0.20556220000000003 0.041265458 0.134225391 
0.100352466 0.22382903999999998 0.09640127155 
-0.19823199000000002 0.163456395 0.067695176 
-0.07390323 0.28206369 0.09640127155 
0.29787122 0.24596233 0.114307456 
-0.22910499 -0.111031 0.12980988599999999 
0.141020194 0.195028536 0.079762861 
-0.06745810000000001 0.084872183 0.122327501 
-0.12316336000000001 0.190134741 0.143939402 
-0.15802004000000003 0.19140707699999998 0.143939398 
-0.05023077999999999 0.25939713 0.10263977 
-0.19041752 0.071538357 0.131218687 
0.4992644 0.192565001 0.096427871469 
0.26746 0.20505790000000002 0.09640127155 
-0.04602679999999999 0.193604313 0.09640127155 
-0.048555100000000004 0.147835001 0.146021835 
-0.23852413 -0.014660839999999994 0.134797063 
-0.030420309999999992 0.19969301 0.06364879 
-0.29833170000000003 -0.014195230000000003 0.0990743228 
-0.14280422999999998 0.147835001 0.058811758 
-0.05238111999999999 0.168848313 0.09640127155 
-0.31880089 -0.111031 0.0908186793 
0.25657579 0.2569742 0.117863525 
0.40849439 0.26055891 0.115109695 
0.028026900999999993 0.2256935 0.081981726 
-0.17740082000000001 -0.009282540000000006 0.135292198 
-0.12779585 -0.04794493000000001 0.113706356 
0.19092146999999998 0.23811594000000003 0.09639872106 
0.061061974 0.20768059 0.064484738 
0.028026900999999993 0.22324931999999997 0.1043528028 
0.028070315999999998 0.24527376 0.09640127155 
0.112053646 0.23349514 0.09640127155 
-0.25528055 0.034558587 0.09640127155 
-0.21899398000000003 -0.07019519 0.09639872106 
0.124621644 0.27136452 0.09639872106 
0.0015128999999999976 0.24001948 0.09640127155 
0.022728182 0.22241916 0.122327501 
